0.152906 -0.007494 -0.982937 
0.152147 -0.007567 -0.982203 
0.152236 -0.007551 -0.982048 
0.152325 -0.007534 -0.981893 
0.152414 -0.007518 -0.981738 
0.152503 -0.007502 -0.981583 
0.152591 -0.007485 -0.981428 
0.152680 -0.007469 -0.981273 
0.152769 -0.007453 -0.981118 
0.152009 -0.007526 -0.980381 
0.152098 -0.007509 -0.980225 
0.152187 -0.007493 -0.980070 
0.152276 -0.007477 -0.979915 
0.152365 -0.007460 -0.979760 
0.152454 -0.007444 -0.979604 
0.152543 -0.007428 -0.979449 
0.152632 -0.007411 -0.979294 
0.153624 -0.006328 -0.983822 
0.152868 -0.006406 -0.983091 
0.152956 -0.006389 -0.982937 
0.153045 -0.006372 -0.982782 
0.152286 -0.006451 -0.982048 
0.152375 -0.006434 -0.981893 
0.152464 -0.006417 -0.981738 
0.152553 -0.006400 -0.981583 
0.152642 -0.006383 -0.981428 
0.151881 -0.006462 -0.980691 
0.151970 -0.006445 -0.980536 
0.152059 -0.006428 -0.980381 
0.152148 -0.006411 -0.980225 
0.152237 -0.006394 -0.980070 
0.152326 -0.006377 -0.979915 
0.152415 -0.006360 -0.979760 
0.152504 -0.006343 -0.979604 
0.152592 -0.006326 -0.979449 
0.152681 -0.006308 -0.979294 
0.153672 -0.005092 -0.983818 
0.152917 -0.005177 -0.983088 
0.152159 -0.005262 -0.982355 
0.152247 -0.005244 -0.982200 
0.152336 -0.005226 -0.982045 
0.152424 -0.005209 -0.981890 
0.152513 -0.005191 -0.981735 
0.152602 -0.005173 -0.981580 
0.152690 -0.005156 -0.981425 
0.152779 -0.005138 -0.981270 
0.152019 -0.005223 -0.980532 
0.152108 -0.005205 -0.980377 
0.152197 -0.005187 -0.980222 
0.152286 -0.005170 -0.980066 
0.152374 -0.005152 -0.979911 
0.152463 -0.005134 -0.979756 
0.152552 -0.005116 -0.979601 
0.152641 -0.005099 -0.979445 
0.152730 -0.005081 -0.979290 
0.153705 -0.003881 -0.983822 
0.152950 -0.003971 -0.983091 
0.152193 -0.004062 -0.982358 
0.152281 -0.004044 -0.982203 
0.152370 -0.004025 -0.982048 
0.152458 -0.004007 -0.981893 
0.152547 -0.003989 -0.981738 
0.152635 -0.003970 -0.981583 
0.152724 -0.003952 -0.981428 
0.152812 -0.003933 -0.981273 
0.152901 -0.003915 -0.981118 
0.152142 -0.004006 -0.980381 
0.152231 -0.003987 -0.980225 
0.152319 -0.003969 -0.980070 
0.152408 -0.003951 -0.979915 
0.152497 -0.003932 -0.979760 
0.152585 -0.003914 -0.979604 
0.152674 -0.003895 -0.979449 
0.152763 -0.003877 -0.979294 
0.153729 -0.002795 -0.983821 
0.152975 -0.002891 -0.983090 
0.152219 -0.002987 -0.982357 
0.152307 -0.002968 -0.982202 
0.152395 -0.002949 -0.982047 
0.152484 -0.002930 -0.981892 
0.152572 -0.002911 -0.981737 
0.152660 -0.002892 -0.981582 
0.152749 -0.002873 -0.981427 
0.152837 -0.002854 -0.981272 
0.152925 -0.002835 -0.981117 
0.152167 -0.002931 -0.980380 
0.152256 -0.002912 -0.980224 
0.152344 -0.002893 -0.980069 
0.152433 -0.002874 -0.979914 
0.152521 -0.002855 -0.979758 
0.152610 -0.002836 -0.979603 
0.152698 -0.002817 -0.979448 
0.152787 -0.002798 -0.979293 
0.153747 -0.001602 -0.983820 
0.152150 -0.001825 -0.982511 
0.152238 -0.001806 -0.982356 
0.152326 -0.001786 -0.982201 
0.152414 -0.001766 -0.982046 
0.152502 -0.001746 -0.981891 
0.152591 -0.001727 -0.981736 
0.152679 -0.001707 -0.981581 
0.152767 -0.001687 -0.981426 
0.152009 -0.001790 -0.980689 
0.152098 -0.001770 -0.980534 
0.152186 -0.001750 -0.980379 
0.152274 -0.001730 -0.980223 
0.152363 -0.001711 -0.980068 
0.152451 -0.001691 -0.979913 
0.152539 -0.001671 -0.979757 
0.152628 -0.001651 -0.979602 
0.152716 -0.001632 -0.979447 
0.152805 -0.001612 -0.979291 
0.153666 -0.000452 -0.983977 
0.153754 -0.000432 -0.983822 
0.152158 -0.000667 -0.982513 
0.152246 -0.000647 -0.982358 
0.152334 -0.000627 -0.982203 
0.152422 -0.000606 -0.982048 
0.152510 -0.000586 -0.981893 
0.152598 -0.000565 -0.981738 
0.152686 -0.000545 -0.981583 
0.152774 -0.000525 -0.981428 
0.152017 -0.000633 -0.980691 
0.152105 -0.000612 -0.980536 
0.152194 -0.000592 -0.980381 
0.152282 -0.000571 -0.980225 
0.152370 -0.000551 -0.980070 
0.152458 -0.000530 -0.979915 
0.152546 -0.000510 -0.979760 
0.152635 -0.000490 -0.979604 
0.152723 -0.000469 -0.979449 
0.152811 -0.000449 -0.979294 
0.153665 0.000752 -0.983977 
0.152913 0.000639 -0.983246 
0.152158 0.000525 -0.982513 
0.152246 0.000546 -0.982358 
0.152334 0.000567 -0.982203 
0.152422 0.000588 -0.982048 
0.152510 0.000609 -0.981893 
0.152598 0.000630 -0.981738 
0.152686 0.000651 -0.981583 
0.151929 0.000537 -0.980846 
0.152017 0.000559 -0.980691 
0.152106 0.000580 -0.980536 
0.152194 0.000601 -0.980381 
0.152282 0.000622 -0.980225 
0.152370 0.000643 -0.980070 
0.152458 0.000664 -0.979915 
0.152546 0.000685 -0.979760 
0.152634 0.000706 -0.979604 
0.152722 0.000728 -0.979449 
0.152810 0.000749 -0.979294 
0.153482 0.001878 -0.984281 
0.153570 0.001899 -0.984127 
0.153657 0.001921 -0.983972 
0.152906 0.001802 -0.983242 
0.152153 0.001682 -0.982509 
0.152240 0.001704 -0.982354 
0.152328 0.001726 -0.982199 
0.152416 0.001748 -0.982044 
0.152503 0.001769 -0.981889 
0.152591 0.001791 -0.981734 
0.152679 0.001813 -0.981579 
0.152767 0.001835 -0.981424 
0.152012 0.001715 -0.980687 
0.152099 0.001737 -0.980532 
0.152187 0.001758 -0.980377 
0.152275 0.001780 -0.980221 
0.152363 0.001802 -0.980066 
0.152451 0.001824 -0.979911 
0.152539 0.001846 -0.979755 
0.152627 0.001867 -0.979600 
0.153464 0.003014 -0.984281 
0.153551 0.003036 -0.984127 
0.152801 0.002911 -0.983397 
0.152048 0.002786 -0.982664 
0.152136 0.002809 -0.982509 
0.152224 0.002831 -0.982354 
0.152311 0.002853 -0.982199 
0.152399 0.002876 -0.982044 
0.152486 0.002898 -0.981889 
0.151732 0.002773 -0.981153 
0.151819 0.002795 -0.980998 
0.151907 0.002818 -0.980842 
0.151995 0.002840 -0.980687 
0.152082 0.002863 -0.980532 
0.152170 0.002885 -0.980377 
0.152258 0.002907 -0.980221 
0.152345 0.002930 -0.980066 
0.152433 0.002952 -0.979911 
0.152521 0.002975 -0.979755 
0.153436 0.004209 -0.984281 
0.153523 0.004232 -0.984127 
0.152774 0.004101 -0.983397 
0.152022 0.003970 -0.982664 
0.152109 0.003993 -0.982509 
0.152197 0.004016 -0.982354 
0.152284 0.004039 -0.982199 
0.152372 0.004062 -0.982044 
0.152459 0.004085 -0.981889 
0.151705 0.003954 -0.981153 
0.151793 0.003977 -0.980998 
0.151880 0.004000 -0.980842 
0.151968 0.004023 -0.980687 
0.152055 0.004047 -0.980532 
0.152143 0.004070 -0.980377 
0.152231 0.004093 -0.980221 
0.152318 0.004116 -0.980066 
0.152406 0.004139 -0.979911 
0.152493 0.004162 -0.979755 
0.153401 0.005327 -0.984281 
0.152653 0.005191 -0.983551 
0.151902 0.005054 -0.982819 
0.151989 0.005078 -0.982664 
0.152076 0.005102 -0.982509 
0.152164 0.005125 -0.982354 
0.152251 0.005149 -0.982199 
0.152338 0.005173 -0.982044 
0.151585 0.005036 -0.981308 
0.151673 0.005060 -0.981153 
0.151760 0.005083 -0.980998 
0.151847 0.005107 -0.980842 
0.151935 0.005131 -0.980687 
0.152022 0.005155 -0.980532 
0.152109 0.005179 -0.980377 
0.152197 0.005202 -0.980221 
0.152284 0.005226 -0.980066 
0.151530 0.005089 -0.979325 
0.151617 0.005113 -0.979170 
0.153353 0.006541 -0.984283 
0.152606 0.006399 -0.983553 
0.151856 0.006257 -0.982821 
0.151943 0.006281 -0.982666 
0.152030 0.006305 -0.982511 
0.152117 0.006330 -0.982356 
0.151365 0.006187 -0.981621 
0.151452 0.006211 -0.981465 
0.151539 0.006236 -0.981310 
0.151626 0.006260 -0.981155 
0.151713 0.006285 -0.981000 
0.151801 0.006309 -0.980844 
0.151888 0.006334 -0.980689 
0.151975 0.006358 -0.980534 
0.152062 0.006382 -0.980379 
0.152149 0.006407 -0.980223 
0.151396 0.006264 -0.979483 
0.151483 0.006288 -0.979327 
0.151571 0.006313 -0.979172 
0.153297 0.007722 -0.984285 
0.152551 0.007574 -0.983555 
0.151802 0.007426 -0.982823 
0.151889 0.007451 -0.982668 
0.151975 0.007476 -0.982513 
0.152062 0.007501 -0.982358 
0.151311 0.007353 -0.981623 
0.151398 0.007378 -0.981467 
0.151485 0.007403 -0.981312 
0.151572 0.007428 -0.981157 
0.151659 0.007453 -0.981002 
0.151746 0.007478 -0.980846 
0.151833 0.007503 -0.980691 
0.151920 0.007528 -0.980536 
0.152007 0.007554 -0.980381 
0.152094 0.007579 -0.980225 
0.152181 0.007604 -0.980070 
0.151429 0.007455 -0.979329 
0.151516 0.007480 -0.979174 
0.152405 0.008648 -0.983710 
0.151658 0.008495 -0.982978 
0.151744 0.008521 -0.982823 
0.151831 0.008546 -0.982668 
0.151081 0.008392 -0.981933 
0.151168 0.008418 -0.981778 
0.151254 0.008444 -0.981623 
0.151341 0.008469 -0.981467 
0.151428 0.008495 -0.981312 
0.151515 0.008521 -0.981157 
0.151602 0.008547 -0.981002 
0.151688 0.008572 -0.980846 
0.151775 0.008598 -0.980691 
0.151862 0.008624 -0.980536 
0.151111 0.008470 -0.979796 
0.151198 0.008495 -0.979640 
0.151285 0.008521 -0.979485 
0.151371 0.008547 -0.979329 
0.151458 0.008573 -0.979174 
0.152248 0.009837 -0.983861 
0.152334 0.009863 -0.983706 
0.151588 0.009703 -0.982974 
0.151674 0.009730 -0.982819 
0.150925 0.009570 -0.982084 
0.151012 0.009596 -0.981929 
0.151098 0.009623 -0.981774 
0.151185 0.009649 -0.981619 
0.151271 0.009675 -0.981464 
0.151358 0.009702 -0.981308 
0.151445 0.009728 -0.981153 
0.151531 0.009755 -0.980998 
0.151618 0.009781 -0.980843 
0.151704 0.009808 -0.980687 
0.150954 0.009647 -0.979948 
0.151041 0.009674 -0.979792 
0.151128 0.009700 -0.979637 
0.151214 0.009727 -0.979481 
0.151301 0.009753 -0.979325 
0.151388 0.009780 -0.979170 
0.152169 0.010955 -0.983865 
0.151424 0.010790 -0.983133 
0.151510 0.010817 -0.982978 
0.150762 0.010651 -0.982243 
0.150848 0.010678 -0.982088 
0.150935 0.010705 -0.981933 
0.151021 0.010732 -0.981778 
0.151107 0.010759 -0.981623 
0.151194 0.010786 -0.981467 
0.151280 0.010814 -0.981312 
0.151367 0.010841 -0.981157 
0.151453 0.010868 -0.981002 
0.151539 0.010895 -0.980846 
0.150790 0.010729 -0.980107 
0.150877 0.010756 -0.979951 
0.150963 0.010783 -0.979796 
0.151050 0.010810 -0.979640 
0.151136 0.010837 -0.979485 
0.151223 0.010865 -0.979329 
0.151309 0.010892 -0.979174 
0.151995 0.012085 -0.984019 
0.151251 0.011914 -0.983288 
0.150504 0.011742 -0.982554 
0.150590 0.011770 -0.982399 
0.150677 0.011798 -0.982243 
0.150763 0.011826 -0.982088 
0.150849 0.011853 -0.981933 
0.150935 0.011881 -0.981778 
0.151021 0.011909 -0.981623 
0.151107 0.011936 -0.981467 
0.151194 0.011964 -0.981312 
0.151280 0.011992 -0.981157 
0.151366 0.012020 -0.981002 
0.151452 0.012047 -0.980846 
0.150704 0.011876 -0.980107 
0.150790 0.011904 -0.979951 
0.150877 0.011931 -0.979796 
0.150963 0.011959 -0.979640 
0.151049 0.011987 -0.979485 
0.151136 0.012015 -0.979329 
0.151222 0.012043 -0.979174 
0.151905 0.013187 -0.984017 
0.151162 0.013011 -0.983285 
0.150417 0.012834 -0.982551 
0.150503 0.012863 -0.982396 
0.150589 0.012891 -0.982241 
0.150675 0.012919 -0.982086 
0.150760 0.012948 -0.981931 
0.150846 0.012976 -0.981775 
0.150932 0.013004 -0.981620 
0.151018 0.013033 -0.981465 
0.151104 0.013061 -0.981310 
0.151190 0.013089 -0.981155 
0.150443 0.012912 -0.980416 
0.150530 0.012941 -0.980260 
0.150616 0.012969 -0.980105 
0.150702 0.012997 -0.979949 
0.150788 0.013026 -0.979793 
0.150874 0.013054 -0.979638 
0.150960 0.013083 -0.979482 
0.151625 0.014318 -0.984328 
0.151711 0.014347 -0.984173 
0.151796 0.014376 -0.984018 
0.150225 0.013983 -0.982708 
0.150311 0.014012 -0.982553 
0.150396 0.014041 -0.982398 
0.150482 0.014070 -0.982242 
0.150568 0.014099 -0.982087 
0.150654 0.014128 -0.981932 
0.150739 0.014157 -0.981777 
0.150825 0.014186 -0.981622 
0.150911 0.014215 -0.981466 
0.150165 0.014032 -0.980728 
0.150251 0.014061 -0.980572 
0.150337 0.014090 -0.980417 
0.150423 0.014119 -0.980261 
0.150509 0.014148 -0.980106 
0.150594 0.014177 -0.979950 
0.150680 0.014206 -0.979795 
0.150766 0.014235 -0.979639 
0.151516 0.015449 -0.984325 
0.151602 0.015479 -0.984170 
0.150861 0.015291 -0.983439 
0.150118 0.015103 -0.982705 
0.150204 0.015133 -0.982550 
0.150289 0.015162 -0.982395 
0.150375 0.015192 -0.982240 
0.150460 0.015222 -0.982084 
0.150546 0.015251 -0.981929 
0.150631 0.015281 -0.981774 
0.150717 0.015310 -0.981619 
0.149972 0.015122 -0.980881 
0.150058 0.015152 -0.980725 
0.150144 0.015181 -0.980570 
0.150229 0.015211 -0.980414 
0.150315 0.015241 -0.980259 
0.150401 0.015270 -0.980103 
0.150486 0.015300 -0.979948 
0.150572 0.015330 -0.979792 
0.151301 0.016628 -0.984483 
0.151386 0.016659 -0.984329 
0.150647 0.016465 -0.983598 
0.149905 0.016271 -0.982864 
0.149990 0.016301 -0.982709 
0.150076 0.016331 -0.982554 
0.150161 0.016362 -0.982399 
0.150246 0.016392 -0.982243 
0.150331 0.016423 -0.982088 
0.149588 0.016228 -0.981351 
0.149674 0.016258 -0.981195 
0.149759 0.016289 -0.981040 
0.149844 0.016319 -0.980884 
0.149930 0.016349 -0.980729 
0.150015 0.016380 -0.980573 
0.150101 0.016410 -0.980418 
0.150186 0.016441 -0.980262 
0.149441 0.016246 -0.979521 
0.149527 0.016276 -0.979365 
0.149612 0.016307 -0.979209 
0.151177 0.017718 -0.984483 
0.151262 0.017749 -0.984329 
0.150524 0.017550 -0.983598 
0.149784 0.017350 -0.982864 
0.149869 0.017381 -0.982709 
0.149954 0.017412 -0.982554 
0.150039 0.017443 -0.982399 
0.149297 0.017243 -0.981662 
0.149382 0.017274 -0.981506 
0.149467 0.017305 -0.981351 
0.149553 0.017336 -0.981195 
0.149638 0.017367 -0.981040 
0.149723 0.017398 -0.980884 
0.149808 0.017429 -0.980729 
0.149893 0.017460 -0.980573 
0.149150 0.017259 -0.979832 
0.149235 0.017291 -0.979676 
0.149320 0.017322 -0.979521 
0.149406 0.017353 -0.979365 
0.149491 0.017384 -0.979209 
0.151036 0.018881 -0.984483 
0.150300 0.018677 -0.983753 
0.149561 0.018472 -0.983019 
0.149646 0.018503 -0.982864 
0.148905 0.018297 -0.982128 
0.148990 0.018329 -0.981973 
0.149075 0.018360 -0.981817 
0.149160 0.018392 -0.981662 
0.149245 0.018424 -0.981506 
0.149330 0.018455 -0.981351 
0.149415 0.018487 -0.981195 
0.149500 0.018519 -0.981040 
0.149584 0.018550 -0.980884 
0.148842 0.018344 -0.980144 
0.148927 0.018376 -0.979988 
0.149012 0.018408 -0.979832 
0.149097 0.018439 -0.979676 
0.149182 0.018471 -0.979521 
0.149267 0.018503 -0.979365 
0.149353 0.018534 -0.979209 
0.150080 0.019708 -0.983907 
0.149342 0.019497 -0.983175 
0.149427 0.019529 -0.983019 
0.148687 0.019318 -0.982284 
0.148772 0.019350 -0.982128 
0.148857 0.019383 -0.981973 
0.148941 0.019415 -0.981817 
0.149026 0.019447 -0.981662 
0.149111 0.019479 -0.981506 
0.149195 0.019512 -0.981351 
0.149280 0.019544 -0.981195 
0.149365 0.019576 -0.981040 
0.148624 0.019365 -0.980300 
0.148709 0.019397 -0.980144 
0.148793 0.019429 -0.979988 
0.148878 0.019462 -0.979832 
0.148963 0.019494 -0.979676 
0.149048 0.019526 -0.979521 
0.149133 0.019558 -0.979365 
0.149218 0.019591 -0.979209 
0.149835 0.020876 -0.984059 
0.149099 0.020659 -0.983327 
0.148361 0.020442 -0.982591 
0.148445 0.020475 -0.982436 
0.148530 0.020508 -0.982281 
0.148614 0.020540 -0.982125 
0.148699 0.020573 -0.981970 
0.148783 0.020606 -0.981814 
0.148868 0.020639 -0.981659 
0.148952 0.020672 -0.981503 
0.149036 0.020705 -0.981348 
0.148297 0.020488 -0.980608 
0.148381 0.020521 -0.980452 
0.148466 0.020554 -0.980296 
0.148551 0.020586 -0.980141 
0.148635 0.020619 -0.979985 
0.148720 0.020652 -0.979829 
0.148804 0.020685 -0.979673 
0.148889 0.020718 -0.979518 
0.148974 0.020751 -0.979362 
0.149058 0.020784 -0.979206 
0.149589 0.021957 -0.984217 
0.148855 0.021735 -0.983485 
0.148118 0.021512 -0.982750 
0.148203 0.021546 -0.982594 
0.148287 0.021580 -0.982439 
0.148371 0.021613 -0.982284 
0.148455 0.021647 -0.982128 
0.148539 0.021680 -0.981973 
0.148624 0.021714 -0.981817 
0.147885 0.021491 -0.981078 
0.147970 0.021524 -0.980922 
0.148054 0.021558 -0.980767 
0.148138 0.021591 -0.980611 
0.148223 0.021625 -0.980455 
0.148307 0.021659 -0.980299 
0.148391 0.021692 -0.980144 
0.148476 0.021726 -0.979988 
0.148560 0.021759 -0.979832 
0.148644 0.021793 -0.979676 
0.149254 0.023006 -0.984527 
0.149338 0.023040 -0.984372 
0.148605 0.022812 -0.983640 
0.147870 0.022584 -0.982905 
0.147954 0.022618 -0.982750 
0.148038 0.022652 -0.982594 
0.148122 0.022686 -0.982439 
0.148206 0.022721 -0.982283 
0.148289 0.022755 -0.982128 
0.148373 0.022789 -0.981973 
0.147637 0.022560 -0.981234 
0.147721 0.022594 -0.981078 
0.147805 0.022629 -0.980922 
0.147889 0.022663 -0.980767 
0.147973 0.022697 -0.980611 
0.148057 0.022731 -0.980455 
0.148141 0.022766 -0.980299 
0.148225 0.022800 -0.980144 
0.148309 0.022834 -0.979988 
0.148393 0.022868 -0.979832 
0.149082 0.024110 -0.984524 
0.149165 0.024144 -0.984369 
0.147617 0.023643 -0.983058 
0.147701 0.023677 -0.982902 
0.147784 0.023712 -0.982747 
0.147868 0.023747 -0.982591 
0.147952 0.023782 -0.982436 
0.147216 0.023547 -0.981698 
0.147300 0.023582 -0.981542 
0.147384 0.023617 -0.981387 
0.147468 0.023652 -0.981231 
0.147551 0.023687 -0.981075 
0.147635 0.023722 -0.980919 
0.147719 0.023757 -0.980764 
0.147803 0.023791 -0.980608 
0.147887 0.023826 -0.980452 
0.147970 0.023861 -0.980296 
0.148054 0.023896 -0.980141 
0.147318 0.023661 -0.979398 
0.147402 0.023696 -0.979242 
0.148076 0.024996 -0.983949 
0.148159 0.025032 -0.983794 
0.147427 0.024792 -0.983059 
0.147511 0.024828 -0.982904 
0.146777 0.024587 -0.982167 
0.146860 0.024623 -0.982011 
0.146944 0.024658 -0.981855 
0.147027 0.024694 -0.981700 
0.147111 0.024729 -0.981544 
0.147194 0.024765 -0.981388 
0.147278 0.024800 -0.981232 
0.147361 0.024836 -0.981077 
0.147445 0.024871 -0.980921 
0.147528 0.024907 -0.980765 
0.147612 0.024942 -0.980609 
0.147695 0.024978 -0.980454 
0.146960 0.024737 -0.979711 
0.147044 0.024773 -0.979555 
0.147128 0.024809 -0.979399 
0.147211 0.024844 -0.979243 
0.147295 0.024880 -0.979087 
0.147891 0.026064 -0.983949 
0.147161 0.025819 -0.983215 
0.146429 0.025573 -0.982478 
0.146512 0.025610 -0.982322 
0.146595 0.025646 -0.982167 
0.146679 0.025682 -0.982011 
0.146762 0.025718 -0.981855 
0.146845 0.025754 -0.981700 
0.146928 0.025790 -0.981544 
0.147012 0.025826 -0.981388 
0.147095 0.025862 -0.981232 
0.147178 0.025898 -0.981077 
0.147262 0.025935 -0.980921 
0.146528 0.025689 -0.980179 
0.146611 0.025725 -0.980023 
0.146695 0.025761 -0.979867 
0.146778 0.025797 -0.979711 
0.146862 0.025833 -0.979555 
0.146945 0.025869 -0.979399 
0.147028 0.025906 -0.979243 
0.147112 0.025942 -0.979087 
0.147600 0.027180 -0.984105 
0.146872 0.026929 -0.983372 
0.146141 0.026678 -0.982635 
0.146224 0.026715 -0.982480 
0.146307 0.026751 -0.982324 
0.146390 0.026788 -0.982168 
0.146473 0.026825 -0.982013 
0.146556 0.026862 -0.981857 
0.146639 0.026898 -0.981701 
0.146722 0.026935 -0.981546 
0.146805 0.026972 -0.981390 
0.146888 0.027009 -0.981234 
0.146156 0.026757 -0.980493 
0.146239 0.026794 -0.980337 
0.146322 0.026831 -0.980181 
0.146405 0.026867 -0.980025 
0.146488 0.026904 -0.979869 
0.146571 0.026941 -0.979713 
0.146655 0.026978 -0.979557 
0.146738 0.027015 -0.979401 
0.146821 0.027051 -0.979245 
0.147233 0.028196 -0.984412 
0.147315 0.028233 -0.984257 
0.146589 0.027977 -0.983523 
0.145860 0.027720 -0.982787 
0.145942 0.027757 -0.982632 
0.146025 0.027795 -0.982476 
0.146108 0.027832 -0.982320 
0.146190 0.027869 -0.982165 
0.146273 0.027907 -0.982009 
0.146356 0.027944 -0.981853 
0.146439 0.027981 -0.981697 
0.145708 0.027724 -0.980957 
0.145791 0.027762 -0.980801 
0.145874 0.027799 -0.980645 
0.145957 0.027836 -0.980489 
0.146039 0.027874 -0.980333 
0.146122 0.027911 -0.980177 
0.146205 0.027949 -0.980021 
0.146288 0.027986 -0.979865 
0.146371 0.028024 -0.979709 
0.146454 0.028061 -0.979553 
0.146857 0.029199 -0.984723 
0.146940 0.029237 -0.984567 
0.147022 0.029275 -0.984412 
0.146297 0.029013 -0.983679 
0.145570 0.028751 -0.982943 
0.145652 0.028789 -0.982788 
0.145735 0.028827 -0.982632 
0.145817 0.028865 -0.982476 
0.145899 0.028903 -0.982321 
0.145982 0.028941 -0.982165 
0.145253 0.028678 -0.981425 
0.145335 0.028716 -0.981269 
0.145418 0.028754 -0.981113 
0.145501 0.028792 -0.980957 
0.145583 0.028830 -0.980801 
0.145666 0.028868 -0.980645 
0.145748 0.028906 -0.980489 
0.145831 0.028944 -0.980333 
0.145913 0.028982 -0.980177 
0.145996 0.029020 -0.980021 
0.145266 0.028757 -0.979277 
0.145348 0.028795 -0.979121 
0.146619 0.030360 -0.984726 
0.146701 0.030398 -0.984571 
0.145979 0.030131 -0.983838 
0.145253 0.029863 -0.983103 
0.145335 0.029902 -0.982947 
0.145418 0.029940 -0.982791 
0.145500 0.029979 -0.982635 
0.145582 0.030018 -0.982480 
0.145664 0.030056 -0.982324 
0.145746 0.030095 -0.982168 
0.145019 0.029826 -0.981429 
0.145101 0.029865 -0.981273 
0.145184 0.029903 -0.981117 
0.145266 0.029942 -0.980961 
0.145348 0.029981 -0.980805 
0.145430 0.030020 -0.980649 
0.145513 0.030058 -0.980493 
0.144784 0.029789 -0.979749 
0.144866 0.029828 -0.979593 
0.144949 0.029867 -0.979437 
0.145031 0.029905 -0.979280 
0.145114 0.029944 -0.979124 
0.146391 0.031445 -0.984725 
0.146473 0.031484 -0.984570 
0.145752 0.031212 -0.983837 
0.145029 0.030938 -0.983102 
0.145111 0.030977 -0.982946 
0.145192 0.031017 -0.982790 
0.145274 0.031056 -0.982635 
0.145356 0.031095 -0.982479 
0.144631 0.030821 -0.981740 
0.144713 0.030860 -0.981584 
0.144795 0.030899 -0.981428 
0.144877 0.030939 -0.981272 
0.144959 0.030978 -0.981116 
0.145041 0.031017 -0.980960 
0.144314 0.030742 -0.980217 
0.144396 0.030782 -0.980061 
0.144478 0.030821 -0.979905 
0.144560 0.030861 -0.979748 
0.144642 0.030900 -0.979592 
0.144724 0.030939 -0.979436 
0.144806 0.030979 -0.979279 
0.144889 0.031018 -0.979123 
0.145351 0.032228 -0.984146 
0.145433 0.032268 -0.983991 
0.144711 0.031989 -0.983256 
0.144793 0.032029 -0.983100 
0.144874 0.032069 -0.982944 
0.144956 0.032108 -0.982789 
0.144233 0.031829 -0.982050 
0.144314 0.031869 -0.981894 
0.144396 0.031908 -0.981738 
0.144478 0.031948 -0.981582 
0.144559 0.031988 -0.981426 
0.143834 0.031708 -0.980684 
0.143916 0.031748 -0.980528 
0.143998 0.031788 -0.980372 
0.144079 0.031828 -0.980216 
0.144161 0.031868 -0.980059 
0.144243 0.031908 -0.979903 
0.144325 0.031948 -0.979747 
0.144407 0.031988 -0.979590 
0.144488 0.032028 -0.979434 
0.144570 0.032068 -0.979278 
0.144652 0.032108 -0.979122 
0.145098 0.033341 -0.984149 
0.144379 0.033056 -0.983414 
0.143657 0.032771 -0.982677 
0.143739 0.032811 -0.982521 
0.143820 0.032852 -0.982365 
0.143901 0.032892 -0.982209 
0.143983 0.032933 -0.982053 
0.144064 0.032974 -0.981897 
0.144146 0.033014 -0.981741 
0.144227 0.033055 -0.981585 
0.144308 0.033095 -0.981429 
0.143585 0.032809 -0.980687 
0.143667 0.032850 -0.980531 
0.143748 0.032890 -0.980374 
0.143830 0.032931 -0.980218 
0.143911 0.032972 -0.980062 
0.143993 0.033012 -0.979905 
0.144074 0.033053 -0.979749 
0.144156 0.033093 -0.979593 
0.144237 0.033134 -0.979437 
0.144319 0.033175 -0.979280 
0.144400 0.033215 -0.979124 
0.144611 0.034266 -0.984615 
0.144692 0.034307 -0.984459 
0.144773 0.034348 -0.984304 
0.144056 0.034058 -0.983570 
0.143336 0.033767 -0.982832 
0.143417 0.033808 -0.982677 
0.143498 0.033849 -0.982521 
0.143579 0.033891 -0.982365 
0.143660 0.033932 -0.982209 
0.143741 0.033973 -0.982053 
0.143020 0.033681 -0.981312 
0.143101 0.033723 -0.981156 
0.143182 0.033764 -0.980999 
0.143263 0.033805 -0.980843 
0.143344 0.033846 -0.980687 
0.143425 0.033887 -0.980531 
0.143507 0.033928 -0.980374 
0.143588 0.033970 -0.980218 
0.143669 0.034011 -0.980062 
0.142946 0.033719 -0.979316 
0.143027 0.033760 -0.979160 
0.143913 0.034134 -0.979593 
0.144254 0.035372 -0.984770 
0.144334 0.035414 -0.984615 
0.144415 0.035455 -0.984459 
0.142902 0.034821 -0.983144 
0.142982 0.034863 -0.982988 
0.143063 0.034905 -0.982832 
0.143144 0.034947 -0.982677 
0.143224 0.034988 -0.982521 
0.143305 0.035030 -0.982365 
0.142586 0.034733 -0.981624 
0.142667 0.034775 -0.981468 
0.142747 0.034816 -0.981312 
0.142828 0.034858 -0.981156 
0.142909 0.034900 -0.980999 
0.142990 0.034942 -0.980843 
0.143071 0.034984 -0.980687 
0.143152 0.035026 -0.980531 
0.143233 0.035067 -0.980374 
0.143313 0.035109 -0.980218 
0.143394 0.035151 -0.980062 
0.142674 0.034853 -0.979316 
0.142755 0.034895 -0.979160 
0.143994 0.036425 -0.984767 
0.144074 0.036467 -0.984611 
0.142565 0.035822 -0.983297 
0.142646 0.035865 -0.983141 
0.142726 0.035907 -0.982985 
0.142807 0.035949 -0.982829 
0.142887 0.035992 -0.982673 
0.142169 0.035689 -0.981933 
0.142250 0.035731 -0.981777 
0.142331 0.035774 -0.981621 
0.142411 0.035816 -0.981465 
0.142492 0.035859 -0.981308 
0.142572 0.035901 -0.981152 
0.142653 0.035943 -0.980996 
0.142733 0.035986 -0.980840 
0.142814 0.036028 -0.980683 
0.142894 0.036071 -0.980527 
0.142975 0.036113 -0.980371 
0.142256 0.035810 -0.979626 
0.142337 0.035852 -0.979469 
0.142418 0.035895 -0.979313 
0.142498 0.035937 -0.979156 
0.142924 0.037156 -0.984191 
0.143004 0.037199 -0.984035 
0.142291 0.036891 -0.983299 
0.142371 0.036934 -0.983143 
0.141656 0.036626 -0.982404 
0.141736 0.036669 -0.982248 
0.141816 0.036712 -0.982092 
0.141896 0.036755 -0.981935 
0.141976 0.036798 -0.981779 
0.142057 0.036841 -0.981623 
0.142137 0.036884 -0.981467 
0.142217 0.036927 -0.981310 
0.142297 0.036970 -0.981154 
0.142377 0.037013 -0.980998 
0.142458 0.037056 -0.980842 
0.142538 0.037099 -0.980685 
0.141821 0.036791 -0.979941 
0.141902 0.036834 -0.979784 
0.141982 0.036877 -0.979628 
0.142062 0.036920 -0.979471 
0.142143 0.036963 -0.979315 
0.142223 0.037006 -0.979158 
0.142548 0.038237 -0.984345 
0.142628 0.038280 -0.984190 
0.141917 0.037967 -0.983454 
0.141204 0.037653 -0.982715 
0.141284 0.037697 -0.982559 
0.141364 0.037740 -0.982403 
0.141443 0.037784 -0.982247 
0.141523 0.037828 -0.982090 
0.141603 0.037871 -0.981934 
0.141683 0.037915 -0.981778 
0.141763 0.037959 -0.981622 
0.141048 0.037644 -0.980879 
0.141128 0.037688 -0.980722 
0.141208 0.037731 -0.980566 
0.141288 0.037775 -0.980409 
0.141368 0.037819 -0.980253 
0.141448 0.037863 -0.980096 
0.141528 0.037906 -0.979940 
0.141608 0.037950 -0.979783 
0.141688 0.037994 -0.979627 
0.141768 0.038037 -0.979470 
0.141848 0.038081 -0.979314 
0.142177 0.039262 -0.984502 
0.142257 0.039306 -0.984346 
0.141548 0.038988 -0.983610 
0.140837 0.038669 -0.982872 
0.140916 0.038713 -0.982716 
0.140996 0.038757 -0.982560 
0.141075 0.038801 -0.982404 
0.141155 0.038846 -0.982247 
0.141234 0.038890 -0.982091 
0.141314 0.038934 -0.981935 
0.140601 0.038614 -0.981193 
0.140681 0.038658 -0.981036 
0.140761 0.038703 -0.980880 
0.140840 0.038747 -0.980723 
0.140920 0.038791 -0.980567 
0.141000 0.038835 -0.980410 
0.141079 0.038880 -0.980254 
0.141159 0.038924 -0.980097 
0.140445 0.038603 -0.979350 
0.140524 0.038648 -0.979194 
0.141636 0.040220 -0.984966 
0.141715 0.040265 -0.984811 
0.141794 0.040310 -0.984655 
0.141088 0.039986 -0.983920 
0.140379 0.039661 -0.983182 
0.140458 0.039705 -0.983026 
0.140537 0.039750 -0.982870 
0.140616 0.039795 -0.982714 
0.140695 0.039840 -0.982557 
0.140775 0.039885 -0.982401 
0.140854 0.039930 -0.982245 
0.140143 0.039604 -0.981503 
0.140223 0.039649 -0.981347 
0.140302 0.039694 -0.981190 
0.140381 0.039739 -0.981034 
0.140461 0.039784 -0.980877 
0.140540 0.039828 -0.980721 
0.140619 0.039873 -0.980564 
0.139907 0.039547 -0.979818 
0.139986 0.039592 -0.979662 
0.140066 0.039637 -0.979505 
0.140145 0.039682 -0.979348 
0.140225 0.039727 -0.979191 
0.141323 0.041300 -0.984969 
0.141401 0.041345 -0.984814 
0.140697 0.041016 -0.984079 
0.140776 0.041061 -0.983923 
0.140070 0.040731 -0.983185 
0.140149 0.040776 -0.983029 
0.140227 0.040822 -0.982873 
0.140306 0.040867 -0.982717 
0.140385 0.040913 -0.982561 
0.139677 0.040581 -0.981819 
0.139756 0.040627 -0.981663 
0.139835 0.040672 -0.981506 
0.139914 0.040718 -0.981350 
0.139993 0.040763 -0.981193 
0.140072 0.040809 -0.981037 
0.140151 0.040854 -0.980880 
0.139441 0.040522 -0.980135 
0.139520 0.040568 -0.979978 
0.139599 0.040614 -0.979822 
0.139678 0.040659 -0.979665 
0.139757 0.040705 -0.979508 
0.139836 0.040750 -0.979351 
0.139915 0.040796 -0.979194 
0.140238 0.041946 -0.984392 
0.140316 0.041992 -0.984236 
0.139612 0.041657 -0.983499 
0.139691 0.041703 -0.983342 
0.139769 0.041749 -0.983186 
0.139063 0.041412 -0.982446 
0.139141 0.041458 -0.982290 
0.139220 0.041504 -0.982133 
0.139299 0.041550 -0.981977 
0.139377 0.041596 -0.981820 
0.139456 0.041642 -0.981664 
0.139535 0.041688 -0.981507 
0.139613 0.041735 -0.981351 
0.139692 0.041781 -0.981194 
0.138984 0.041443 -0.980449 
0.139063 0.041490 -0.980293 
0.139142 0.041536 -0.980136 
0.139220 0.041582 -0.979979 
0.139299 0.041628 -0.979822 
0.139378 0.041674 -0.979666 
0.139457 0.041720 -0.979509 
0.139535 0.041767 -0.979352 
0.139614 0.041813 -0.979195 
0.139848 0.042931 -0.984547 
0.139926 0.042978 -0.984391 
0.139224 0.042637 -0.983654 
0.139302 0.042684 -0.983498 
0.138598 0.042342 -0.982758 
0.138676 0.042388 -0.982602 
0.138755 0.042435 -0.982445 
0.138833 0.042482 -0.982289 
0.138911 0.042528 -0.982132 
0.138989 0.042575 -0.981976 
0.139068 0.042622 -0.981820 
0.138362 0.042279 -0.981076 
0.138440 0.042325 -0.980919 
0.138519 0.042372 -0.980762 
0.138597 0.042419 -0.980605 
0.138676 0.042466 -0.980449 
0.138754 0.042512 -0.980292 
0.138833 0.042559 -0.980135 
0.138911 0.042606 -0.979978 
0.138989 0.042653 -0.979822 
0.139068 0.042699 -0.979665 
0.139354 0.043933 -0.984855 
0.139431 0.043980 -0.984699 
0.139509 0.044027 -0.984543 
0.138810 0.043681 -0.983807 
0.138108 0.043333 -0.983068 
0.138186 0.043380 -0.982911 
0.138264 0.043427 -0.982755 
0.138342 0.043475 -0.982598 
0.138420 0.043522 -0.982442 
0.138498 0.043569 -0.982286 
0.138576 0.043616 -0.982129 
0.137872 0.043268 -0.981386 
0.137950 0.043315 -0.981229 
0.138028 0.043363 -0.981072 
0.138106 0.043410 -0.980916 
0.138185 0.043457 -0.980759 
0.138263 0.043505 -0.980602 
0.138341 0.043552 -0.980445 
0.138419 0.043599 -0.980289 
0.138497 0.043647 -0.980132 
0.137792 0.043298 -0.979384 
0.137870 0.043345 -0.979227 
0.138956 0.044890 -0.985011 
0.139033 0.044938 -0.984855 
0.139110 0.044986 -0.984699 
0.138413 0.044634 -0.983963 
0.137714 0.044281 -0.983224 
0.137792 0.044329 -0.983068 
0.137869 0.044377 -0.982911 
0.137947 0.044425 -0.982755 
0.137246 0.044071 -0.982013 
0.137323 0.044119 -0.981856 
0.137401 0.044167 -0.981699 
0.137479 0.044214 -0.981543 
0.137556 0.044262 -0.981386 
0.137634 0.044310 -0.981229 
0.137712 0.044358 -0.981072 
0.137789 0.044406 -0.980916 
0.137867 0.044454 -0.980759 
0.137165 0.044100 -0.980012 
0.137242 0.044148 -0.979855 
0.137320 0.044196 -0.979698 
0.137398 0.044244 -0.979541 
0.137476 0.044292 -0.979384 
0.137554 0.044340 -0.979227 
0.138531 0.045900 -0.985169 
0.138608 0.045948 -0.985013 
0.137913 0.045591 -0.984277 
0.137217 0.045233 -0.983539 
0.137294 0.045281 -0.983383 
0.137371 0.045329 -0.983226 
0.136672 0.044970 -0.982485 
0.136750 0.045019 -0.982328 
0.136827 0.045067 -0.982172 
0.136904 0.045116 -0.982015 
0.136203 0.044755 -0.981270 
0.136281 0.044804 -0.981113 
0.136358 0.044852 -0.980956 
0.136436 0.044901 -0.980799 
0.136513 0.044949 -0.980642 
0.136591 0.044998 -0.980485 
0.136668 0.045047 -0.980328 
0.136745 0.045095 -0.980171 
0.136823 0.045144 -0.980014 
0.136900 0.045192 -0.979857 
0.136978 0.045241 -0.979700 
0.138172 0.046966 -0.985171 
0.137480 0.046603 -0.984435 
0.136786 0.046239 -0.983698 
0.136090 0.045874 -0.982957 
0.136940 0.046337 -0.983385 
0.136244 0.045973 -0.982644 
0.136321 0.046022 -0.982487 
0.134844 0.045239 -0.981154 
0.134921 0.045288 -0.980997 
0.135776 0.045754 -0.981429 
0.135853 0.045803 -0.981272 
0.135153 0.045436 -0.980525 
0.135230 0.045485 -0.980368 
0.135307 0.045535 -0.980211 
0.135384 0.045584 -0.980053 
0.135462 0.045633 -0.979896 
0.135539 0.045682 -0.979739 
0.135616 0.045732 -0.979581 
0.135693 0.045781 -0.979424 
0.135770 0.045830 -0.979267 
0.136983 0.047509 -0.984748 
0.137059 0.047559 -0.984592 
0.136368 0.047190 -0.983854 
0.134901 0.046399 -0.982528 
0.134978 0.046448 -0.982371 
0.135054 0.046498 -0.982214 
0.135131 0.046548 -0.982057 
0.135208 0.046598 -0.981900 
0.134509 0.046225 -0.981154 
0.134586 0.046275 -0.980997 
0.134663 0.046325 -0.980840 
0.134740 0.046375 -0.980682 
0.134817 0.046424 -0.980525 
0.134893 0.046474 -0.980368 
0.134970 0.046524 -0.980211 
0.135047 0.046574 -0.980053 
0.135124 0.046624 -0.979896 
0.135201 0.046674 -0.979739 
0.135277 0.046723 -0.979581 
0.135354 0.046773 -0.979424 
0.135431 0.046823 -0.979267 
0.136349 0.048514 -0.985216 
0.136425 0.048564 -0.985060 
0.135736 0.048189 -0.984323 
0.135812 0.048240 -0.984167 
0.135121 0.047863 -0.983427 
0.135197 0.047914 -0.983270 
0.135274 0.047964 -0.983114 
0.134581 0.047587 -0.982371 
0.133885 0.047208 -0.981626 
0.133962 0.047259 -0.981468 
0.134038 0.047309 -0.981311 
0.134114 0.047360 -0.981154 
0.134191 0.047410 -0.980997 
0.134267 0.047460 -0.980839 
0.134343 0.047511 -0.980682 
0.134420 0.047561 -0.980525 
0.134496 0.047612 -0.980368 
0.134573 0.047662 -0.980210 
0.134649 0.047713 -0.980053 
0.134725 0.047763 -0.979896 
0.136021 0.049433 -0.985213 
0.135335 0.049053 -0.984476 
0.134646 0.048672 -0.983737 
0.134722 0.048723 -0.983580 
0.134031 0.048341 -0.982839 
0.133338 0.047957 -0.982094 
0.133414 0.048008 -0.981937 
0.133490 0.048059 -0.981780 
0.133566 0.048110 -0.981623 
0.133642 0.048161 -0.981465 
0.133718 0.048212 -0.981308 
0.133794 0.048263 -0.981151 
0.133870 0.048314 -0.980994 
0.133946 0.048365 -0.980836 
0.134022 0.048416 -0.980679 
0.134098 0.048467 -0.980522 
0.134174 0.048518 -0.980365 
0.134250 0.048569 -0.980207 
0.133556 0.048185 -0.979457 
0.134402 0.048671 -0.979893 
0.134737 0.049910 -0.984947 
0.134812 0.049962 -0.984791 
0.134887 0.050013 -0.984634 
0.134962 0.050064 -0.984478 
0.132747 0.048799 -0.982568 
0.132823 0.048851 -0.982411 
0.132898 0.048902 -0.982253 
0.132974 0.048954 -0.982096 
0.133050 0.049005 -0.981939 
0.133125 0.049057 -0.981782 
0.133201 0.049108 -0.981624 
0.133277 0.049160 -0.981467 
0.133352 0.049211 -0.981310 
0.133428 0.049263 -0.981153 
0.133504 0.049314 -0.980996 
0.133579 0.049366 -0.980838 
0.133655 0.049417 -0.980681 
0.133730 0.049469 -0.980524 
0.133806 0.049520 -0.980366 
0.133882 0.049572 -0.980209 
0.133957 0.049624 -0.980052 
0.134033 0.049675 -0.979895 
0.134109 0.049727 -0.979737 
0.134184 0.049778 -0.979580 
0.134348 0.050947 -0.984947 
0.134423 0.050999 -0.984790 
0.134498 0.051051 -0.984634 
0.133815 0.050659 -0.983895 
0.133890 0.050711 -0.983739 
0.133965 0.050763 -0.983582 
0.134040 0.050815 -0.983425 
0.132593 0.049977 -0.982096 
0.132668 0.050029 -0.981938 
0.132744 0.050081 -0.981781 
0.132819 0.050133 -0.981624 
0.132894 0.050185 -0.981467 
0.132969 0.050237 -0.981310 
0.133045 0.050289 -0.981152 
0.133120 0.050341 -0.980995 
0.133195 0.050393 -0.980838 
0.133270 0.050446 -0.980681 
0.133346 0.050498 -0.980523 
0.133421 0.050550 -0.980366 
0.133496 0.050602 -0.980209 
0.133572 0.050654 -0.980051 
0.133647 0.050706 -0.979894 
0.133722 0.050758 -0.979737 
0.133797 0.050810 -0.979580 
0.133873 0.050863 -0.979422 
0.133827 0.051810 -0.985261 
0.133902 0.051863 -0.985105 
0.133976 0.051915 -0.984949 
0.134051 0.051967 -0.984792 
0.133370 0.051571 -0.984054 
0.134200 0.052072 -0.984479 
0.133520 0.051676 -0.983740 
0.133594 0.051728 -0.983584 
0.133669 0.051781 -0.983427 
0.133744 0.051833 -0.983270 
0.133818 0.051886 -0.983114 
0.133893 0.051938 -0.982957 
0.133967 0.051991 -0.982800 
0.134042 0.052043 -0.982644 
0.133361 0.051646 -0.981900 
0.133435 0.051699 -0.981743 
0.133510 0.051751 -0.981586 
0.133585 0.051804 -0.981429 
0.132902 0.051406 -0.980682 
0.132977 0.051459 -0.980525 
0.133051 0.051511 -0.980368 
0.133126 0.051564 -0.980211 
0.133201 0.051617 -0.980053 
0.133276 0.051669 -0.979896 
0.133351 0.051722 -0.979739 
0.133426 0.051775 -0.979581 
0.133501 0.051827 -0.979424 
0.133576 0.051880 -0.979267 
0.133421 0.052853 -0.985258 
0.133495 0.052906 -0.985102 
0.132818 0.052504 -0.984364 
0.132892 0.052557 -0.984207 
0.132966 0.052610 -0.984051 
0.133040 0.052663 -0.983894 
0.133115 0.052716 -0.983737 
0.132436 0.052313 -0.982996 
0.132510 0.052366 -0.982839 
0.132584 0.052419 -0.982682 
0.132659 0.052472 -0.982525 
0.132733 0.052526 -0.982368 
0.132807 0.052579 -0.982211 
0.132882 0.052632 -0.982054 
0.132956 0.052685 -0.981897 
0.132275 0.052281 -0.981151 
0.132350 0.052335 -0.980994 
0.132424 0.052388 -0.980837 
0.132499 0.052441 -0.980679 
0.132573 0.052494 -0.980522 
0.132648 0.052548 -0.980365 
0.132722 0.052601 -0.980208 
0.132040 0.052196 -0.979457 
0.132115 0.052249 -0.979300 
0.132953 0.053785 -0.985414 
0.133027 0.053838 -0.985257 
0.132353 0.053431 -0.984520 
0.131676 0.053023 -0.983779 
0.131750 0.053076 -0.983623 
0.131824 0.053130 -0.983466 
0.131898 0.053184 -0.983309 
0.131972 0.053237 -0.983152 
0.132046 0.053291 -0.982995 
0.131367 0.052882 -0.982251 
0.131441 0.052936 -0.982094 
0.131515 0.052989 -0.981936 
0.131590 0.053043 -0.981779 
0.131664 0.053097 -0.981622 
0.131738 0.053151 -0.981465 
0.131812 0.053204 -0.981307 
0.131132 0.052794 -0.980559 
0.131206 0.052848 -0.980402 
0.131280 0.052902 -0.980244 
0.131354 0.052956 -0.980087 
0.131428 0.053010 -0.979929 
0.131503 0.053064 -0.979771 
0.131577 0.053117 -0.979614 
0.131651 0.053171 -0.979456 
0.131725 0.053225 -0.979299 
0.131809 0.054288 -0.984837 
0.131883 0.054343 -0.984680 
0.131209 0.053929 -0.983940 
0.131282 0.053983 -0.983784 
0.130606 0.053569 -0.983041 
0.130680 0.053623 -0.982884 
0.130754 0.053677 -0.982726 
0.130827 0.053732 -0.982569 
0.130901 0.053786 -0.982412 
0.130975 0.053840 -0.982255 
0.131048 0.053895 -0.982098 
0.131122 0.053949 -0.981940 
0.130445 0.053533 -0.981193 
0.130518 0.053588 -0.981036 
0.130592 0.053642 -0.980878 
0.130666 0.053697 -0.980721 
0.130740 0.053751 -0.980563 
0.130813 0.053805 -0.980406 
0.130887 0.053860 -0.980248 
0.130961 0.053914 -0.980091 
0.130282 0.053498 -0.979339 
0.131157 0.055166 -0.985307 
0.131229 0.055220 -0.985150 
0.131302 0.055275 -0.984994 
0.131375 0.055330 -0.984837 
0.130705 0.054911 -0.984097 
0.130032 0.054491 -0.983355 
0.130105 0.054546 -0.983198 
0.130178 0.054600 -0.983041 
0.130252 0.054655 -0.982884 
0.130325 0.054710 -0.982726 
0.130398 0.054765 -0.982569 
0.130471 0.054820 -0.982412 
0.129797 0.054399 -0.981666 
0.129870 0.054454 -0.981508 
0.129943 0.054509 -0.981351 
0.130017 0.054564 -0.981193 
0.130090 0.054619 -0.981036 
0.130163 0.054674 -0.980878 
0.130237 0.054729 -0.980721 
0.129561 0.054307 -0.979970 
0.129634 0.054362 -0.979812 
0.129708 0.054417 -0.979655 
0.129781 0.054472 -0.979497 
0.129855 0.054527 -0.979339 
0.130681 0.056062 -0.985461 
0.130754 0.056117 -0.985305 
0.130826 0.056173 -0.985148 
0.130899 0.056228 -0.984992 
0.129488 0.055323 -0.983668 
0.129561 0.055379 -0.983510 
0.129634 0.055434 -0.983353 
0.128962 0.055008 -0.982609 
0.129035 0.055063 -0.982451 
0.129108 0.055119 -0.982294 
0.129181 0.055174 -0.982136 
0.129254 0.055230 -0.981979 
0.129327 0.055285 -0.981821 
0.129399 0.055341 -0.981664 
0.129472 0.055396 -0.981506 
0.129545 0.055452 -0.981349 
0.129618 0.055507 -0.981191 
0.128945 0.055080 -0.980442 
0.129018 0.055136 -0.980284 
0.129091 0.055191 -0.980126 
0.129164 0.055247 -0.979968 
0.129237 0.055302 -0.979810 
0.129310 0.055358 -0.979653 
0.129383 0.055414 -0.979495 
0.129456 0.055469 -0.979337 
0.130244 0.057074 -0.985459 
0.130316 0.057130 -0.985303 
0.129651 0.056701 -0.984564 
0.128984 0.056270 -0.983823 
0.129057 0.056326 -0.983666 
0.128388 0.055894 -0.982921 
0.128460 0.055950 -0.982764 
0.128533 0.056006 -0.982607 
0.128605 0.056062 -0.982449 
0.128678 0.056118 -0.982292 
0.128750 0.056174 -0.982134 
0.128823 0.056231 -0.981977 
0.128895 0.056287 -0.981819 
0.128968 0.056343 -0.981662 
0.128297 0.055910 -0.980913 
0.128370 0.055966 -0.980755 
0.128443 0.056022 -0.980597 
0.128515 0.056078 -0.980439 
0.128588 0.056135 -0.980282 
0.128661 0.056191 -0.980124 
0.128733 0.056247 -0.979966 
0.128806 0.056303 -0.979808 
0.128878 0.056359 -0.979650 
0.129003 0.057505 -0.985038 
0.129075 0.057562 -0.984881 
0.129147 0.057618 -0.984724 
0.128483 0.057183 -0.983983 
0.127817 0.056745 -0.983240 
0.127889 0.056802 -0.983082 
0.127961 0.056859 -0.982925 
0.128033 0.056915 -0.982767 
0.128105 0.056972 -0.982610 
0.128177 0.057028 -0.982452 
0.128250 0.057085 -0.982295 
0.127582 0.056647 -0.981547 
0.127654 0.056704 -0.981390 
0.127726 0.056760 -0.981232 
0.127799 0.056817 -0.981074 
0.127871 0.056874 -0.980916 
0.127943 0.056931 -0.980758 
0.128015 0.056987 -0.980601 
0.128087 0.057044 -0.980443 
0.128159 0.057101 -0.980285 
0.127491 0.056662 -0.979532 
0.127563 0.056719 -0.979374 
0.128439 0.058327 -0.985352 
0.128510 0.058384 -0.985196 
0.128581 0.058441 -0.985039 
0.127921 0.058001 -0.984298 
0.127258 0.057558 -0.983555 
0.127329 0.057616 -0.983398 
0.127401 0.057673 -0.983240 
0.127473 0.057730 -0.983083 
0.127544 0.057787 -0.982926 
0.126880 0.057344 -0.982179 
0.126951 0.057401 -0.982021 
0.127023 0.057458 -0.981863 
0.127095 0.057515 -0.981706 
0.127167 0.057573 -0.981548 
0.127238 0.057630 -0.981390 
0.127310 0.057687 -0.981232 
0.127382 0.057744 -0.981075 
0.127454 0.057801 -0.980917 
0.127525 0.057859 -0.980759 
0.126859 0.057415 -0.980007 
0.126931 0.057472 -0.979849 
0.127003 0.057529 -0.979691 
0.127075 0.057587 -0.979533 
0.127147 0.057644 -0.979375 
0.127914 0.059259 -0.985509 
0.127985 0.059316 -0.985352 
0.128056 0.059374 -0.985196 
0.127398 0.058928 -0.984455 
0.126739 0.058481 -0.983713 
0.126810 0.058538 -0.983555 
0.126148 0.058090 -0.982810 
0.126220 0.058147 -0.982652 
0.126291 0.058205 -0.982494 
0.126362 0.058263 -0.982337 
0.126433 0.058321 -0.982179 
0.126505 0.058378 -0.982021 
0.126576 0.058436 -0.981863 
0.126647 0.058494 -0.981706 
0.126719 0.058552 -0.981548 
0.126056 0.058102 -0.980798 
0.126127 0.058160 -0.980640 
0.126198 0.058218 -0.980482 
0.126270 0.058276 -0.980323 
0.126341 0.058334 -0.980165 
0.126413 0.058392 -0.980007 
0.126484 0.058449 -0.979849 
0.126556 0.058507 -0.979691 
0.126627 0.058565 -0.979533 
0.127386 0.060177 -0.985666 
0.127457 0.060235 -0.985509 
0.126803 0.059784 -0.984770 
0.126146 0.059332 -0.984028 
0.126217 0.059390 -0.983870 
0.125559 0.058936 -0.983125 
0.125629 0.058994 -0.982967 
0.125700 0.059053 -0.982810 
0.125771 0.059111 -0.982652 
0.125842 0.059169 -0.982494 
0.125913 0.059228 -0.982337 
0.125984 0.059286 -0.982179 
0.125324 0.058831 -0.981430 
0.125395 0.058889 -0.981272 
0.125466 0.058948 -0.981114 
0.125537 0.059006 -0.980956 
0.125608 0.059065 -0.980798 
0.125678 0.059123 -0.980640 
0.125749 0.059181 -0.980482 
0.125820 0.059240 -0.980323 
0.125891 0.059298 -0.980165 
0.125230 0.058842 -0.979411 
0.126121 0.060597 -0.985241 
0.126191 0.060656 -0.985084 
0.126262 0.060714 -0.984927 
0.125609 0.060257 -0.984185 
0.124954 0.059797 -0.983441 
0.125024 0.059856 -0.983283 
0.125094 0.059915 -0.983125 
0.125165 0.059974 -0.982967 
0.125235 0.060033 -0.982810 
0.125306 0.060092 -0.982652 
0.124649 0.059631 -0.981904 
0.124719 0.059690 -0.981746 
0.124790 0.059749 -0.981588 
0.124860 0.059808 -0.981430 
0.124931 0.059867 -0.981272 
0.125001 0.059926 -0.981114 
0.125072 0.059985 -0.980956 
0.125142 0.060044 -0.980798 
0.124484 0.059583 -0.980045 
0.124555 0.059642 -0.979886 
0.124625 0.059701 -0.979728 
0.124696 0.059760 -0.979570 
0.124766 0.059819 -0.979411 
0.125471 0.061329 -0.985712 
0.125541 0.061388 -0.985555 
0.125611 0.061447 -0.985398 
0.125681 0.061506 -0.985241 
0.125031 0.061044 -0.984500 
0.125101 0.061103 -0.984342 
0.124449 0.060639 -0.983598 
0.124519 0.060698 -0.983441 
0.124588 0.060757 -0.983283 
0.124658 0.060817 -0.983125 
0.124005 0.060351 -0.982378 
0.124075 0.060411 -0.982220 
0.124145 0.060470 -0.982062 
0.124215 0.060530 -0.981904 
0.124285 0.060589 -0.981746 
0.124355 0.060649 -0.981588 
0.124425 0.060708 -0.981430 
0.123770 0.060242 -0.980678 
0.123840 0.060301 -0.980520 
0.123910 0.060361 -0.980361 
0.123980 0.060420 -0.980203 
0.124050 0.060480 -0.980045 
0.124121 0.060540 -0.979886 
0.124191 0.060599 -0.979728 
0.124261 0.060659 -0.979570 
0.124331 0.060718 -0.979411 
0.124219 0.061692 -0.985284 
0.123570 0.061223 -0.984541 
0.123639 0.061283 -0.984384 
0.123709 0.061342 -0.984226 
0.123778 0.061402 -0.984068 
0.123848 0.061462 -0.983911 
0.123197 0.060991 -0.983165 
0.123266 0.061051 -0.983007 
0.123336 0.061111 -0.982849 
0.123406 0.061171 -0.982691 
0.123475 0.061231 -0.982533 
0.123545 0.061291 -0.982375 
0.123614 0.061351 -0.982217 
0.123684 0.061411 -0.982059 
0.123032 0.060939 -0.981308 
0.123102 0.060999 -0.981150 
0.123171 0.061060 -0.980992 
0.123241 0.061120 -0.980833 
0.123311 0.061180 -0.980675 
0.123380 0.061240 -0.980517 
0.123450 0.061300 -0.980358 
0.123520 0.061360 -0.980200 
0.123590 0.061420 -0.980042 
0.123624 0.062485 -0.985597 
0.122978 0.062011 -0.984856 
0.122330 0.061535 -0.984111 
0.122399 0.061595 -0.983953 
0.122468 0.061656 -0.983795 
0.122537 0.061716 -0.983637 
0.122606 0.061777 -0.983479 
0.122676 0.061837 -0.983321 
0.122745 0.061898 -0.983164 
0.122814 0.061958 -0.983006 
0.122883 0.062018 -0.982848 
0.122952 0.062079 -0.982690 
0.122303 0.061602 -0.981940 
0.122372 0.061663 -0.981782 
0.122442 0.061723 -0.981624 
0.122511 0.061784 -0.981465 
0.122580 0.061844 -0.981307 
0.122650 0.061905 -0.981149 
0.122719 0.061966 -0.980991 
0.122788 0.062026 -0.980832 
0.122857 0.062087 -0.980674 
0.122927 0.062147 -0.980516 
0.122996 0.062208 -0.980357 
0.122346 0.061730 -0.979602 
0.122415 0.061791 -0.979444 
0.123052 0.063405 -0.985759 
0.122410 0.062925 -0.985017 
0.121766 0.062444 -0.984273 
0.121834 0.062505 -0.984115 
0.121903 0.062566 -0.983957 
0.121972 0.062627 -0.983799 
0.122040 0.062688 -0.983641 
0.122109 0.062749 -0.983483 
0.122178 0.062810 -0.983325 
0.121532 0.062327 -0.982577 
0.121601 0.062388 -0.982419 
0.121669 0.062450 -0.982261 
0.121738 0.062511 -0.982102 
0.121807 0.062572 -0.981944 
0.121876 0.062633 -0.981786 
0.121945 0.062694 -0.981627 
0.122013 0.062755 -0.981469 
0.122082 0.062816 -0.981311 
0.122151 0.062878 -0.981153 
0.122220 0.062939 -0.980994 
0.122289 0.063000 -0.980836 
0.121642 0.062517 -0.980082 
0.121711 0.062578 -0.979923 
0.121780 0.062639 -0.979765 
0.121848 0.062700 -0.979606 
0.121917 0.062762 -0.979448 
0.121823 0.063675 -0.985329 
0.121182 0.063188 -0.984586 
0.121251 0.063250 -0.984428 
0.121319 0.063311 -0.984270 
0.121387 0.063373 -0.984112 
0.121455 0.063434 -0.983954 
0.120813 0.062947 -0.983207 
0.120881 0.063009 -0.983049 
0.120949 0.063070 -0.982890 
0.121018 0.063132 -0.982732 
0.121086 0.063193 -0.982574 
0.121154 0.063255 -0.982416 
0.121223 0.063317 -0.982257 
0.121291 0.063378 -0.982099 
0.121359 0.063440 -0.981941 
0.121428 0.063502 -0.981783 
0.121496 0.063563 -0.981624 
0.120852 0.063075 -0.980872 
0.120921 0.063137 -0.980713 
0.120989 0.063198 -0.980555 
0.121058 0.063260 -0.980396 
0.121126 0.063322 -0.980238 
0.121194 0.063384 -0.980079 
0.121263 0.063445 -0.979920 
0.121331 0.063507 -0.979762 
0.121400 0.063569 -0.979603 
0.121185 0.064500 -0.985648 
0.121253 0.064562 -0.985490 
0.121320 0.064624 -0.985332 
0.120683 0.064133 -0.984589 
0.120751 0.064195 -0.984431 
0.120818 0.064257 -0.984273 
0.120179 0.063764 -0.983526 
0.120247 0.063826 -0.983368 
0.120315 0.063888 -0.983210 
0.120383 0.063951 -0.983052 
0.120451 0.064013 -0.982894 
0.120519 0.064075 -0.982735 
0.120586 0.064137 -0.982577 
0.120654 0.064199 -0.982419 
0.120722 0.064261 -0.982261 
0.120082 0.063768 -0.981509 
0.120150 0.063830 -0.981351 
0.120218 0.063892 -0.981192 
0.120286 0.063954 -0.981034 
0.120353 0.064017 -0.980875 
0.120421 0.064079 -0.980717 
0.120489 0.064141 -0.980558 
0.120557 0.064204 -0.980399 
0.120625 0.064266 -0.980241 
0.119984 0.063771 -0.979484 
0.120848 0.065503 -0.985332 
0.120915 0.065565 -0.985175 
0.120982 0.065628 -0.985017 
0.120349 0.065132 -0.984273 
0.119713 0.064635 -0.983526 
0.119781 0.064697 -0.983368 
0.119848 0.064760 -0.983210 
0.119915 0.064823 -0.983052 
0.119983 0.064885 -0.982894 
0.119346 0.064387 -0.982143 
0.119413 0.064449 -0.981985 
0.119481 0.064512 -0.981826 
0.119548 0.064575 -0.981668 
0.119616 0.064638 -0.981509 
0.119683 0.064700 -0.981351 
0.119751 0.064763 -0.981192 
0.119818 0.064826 -0.981034 
0.119886 0.064889 -0.980875 
0.119247 0.064389 -0.980120 
0.119315 0.064452 -0.979961 
0.119382 0.064515 -0.979802 
0.119450 0.064578 -0.979643 
0.119518 0.064640 -0.979484 
0.120188 0.066340 -0.985648 
0.120255 0.066402 -0.985490 
0.120321 0.066465 -0.985332 
0.120388 0.066528 -0.985175 
0.119758 0.066028 -0.984431 
0.119127 0.065525 -0.983685 
0.119194 0.065588 -0.983526 
0.119260 0.065651 -0.983368 
0.118627 0.065147 -0.982619 
0.118694 0.065211 -0.982460 
0.118761 0.065274 -0.982302 
0.118828 0.065337 -0.982143 
0.118895 0.065401 -0.981985 
0.118962 0.065464 -0.981826 
0.119029 0.065527 -0.981668 
0.119096 0.065590 -0.981509 
